ply                 
format ascii 1.0    
element vertex 819
property float x    
property float y    
property float z    
property uchar red  
property uchar green
property uchar blue 
end_header          
-87.7632 -43.929 65.8191 73 97 39 
-27.3069 -20.7985 30.7713 252 158 70 
-8600.46 -2605.47 5494.94 179 171 158 
-106.311 -34.0995 72.6433 180 173 155 
-109.974 -36.0284 75.7698 183 178 159 
-106.541 -35.8094 74.9287 175 171 146 
-98.5293 -34.9228 72.2741 177 170 151 
-413.068 -125.753 265.995 190 182 171 
-117.221 -37.4958 79.474 179 172 146 
-72.0721 -39.7797 54.4856 89 77 55 
-97.8701 -47.0878 72.0262 96 100 65 
-27.304 -20.7969 30.7709 223 144 51 
-98.8386 -47.771 72.8266 196 209 155 
-112.324 -39.7648 82.463 186 177 162 
-82.1717 -27.0565 57.5 207 198 191 
-116.764 -37.3319 79.1675 179 172 146 
-124.972 -40.9131 86.2212 186 179 161 
-282.344 -85.6355 181.619 171 163 150 
-76.6061 -25.0162 53.4861 191 183 170 
-1131.85 -355.335 744.903 170 160 148 
-94.6653 -33.1194 68.988 183 177 163 
-125.217 -39.8023 84.4562 176 170 154 
-115.318 -39.4608 82.3329 185 181 156 
-75.0346 -40.0538 56.978 179 193 118 
-109.894 -35.9682 75.7267 173 168 148 
-126.094 -41.2406 86.9216 189 184 165 
-89.9914 -44.5705 67.0509 95 109 56 
-85.0777 -42.439 64.1435 93 89 60 
-92.8815 -45.457 69.0212 187 206 151 
-90.9781 -45.05 67.77 95 109 56 
-0.810516 -0.332397 1.74816 163 153 143 
-0.801441 -0.326465 1.74101 91 97 63 
-0.803149 -0.32745 1.7424 70 75 45 
-0.811201 -0.332212 1.74835 167 168 102 
-0.859005 -0.333891 1.77267 94 83 77 
-0.864497 -0.335336 1.77595 105 91 88 
-0.832107 -0.329454 1.75782 157 148 141 
-0.827905 -0.328672 1.75555 165 162 153 
-0.833046 -0.329694 1.75844 174 164 155 
-0.824727 -0.32804 1.75371 169 160 151 
-0.811226 -0.327421 1.74699 184 171 152 
-0.832179 -0.333399 1.75986 164 152 138 
-0.837826 -0.334982 1.76318 177 170 154 
-0.81076 -0.32736 1.74673 174 169 149 
-0.862615 -0.342606 1.77857 169 163 149 
40801.2 12135.2 -25462 169 157 143 
-0.827592 -0.332506 1.75726 164 156 133 
-0.839329 -0.33595 1.76445 167 160 144 
-0.835772 -0.334946 1.76229 165 155 143 
43933.6 13126.2 -27425.8 156 144 130 
40053.9 11892.8 -24857.3 154 146 135 
-0.869089 -0.344795 1.78271 171 162 133 
28944.7 8603.83 -17897.4 155 149 135 
-0.816009 -0.331207 1.75059 167 145 132 
-0.813777 -0.330413 1.74915 126 103 97 
-0.813484 -0.330373 1.74902 128 103 96 
-0.813136 -0.330306 1.74886 44 27 9 
-0.81248 -0.329878 1.74813 47 32 13 
-0.810731 -0.329366 1.7472 141 114 105 
-0.812153 -0.329826 1.748 52 33 19 
-0.811111 -0.329569 1.74752 124 104 95 
-0.812137 -0.32982 1.74796 43 32 14 
-0.81314 -0.330178 1.74857 126 104 91 
-0.811245 -0.3295 1.7474 139 120 103 
-0.812158 -0.329831 1.74795 180 155 148 
-0.811166 -0.329587 1.74746 143 116 97 
-0.811858 -0.329782 1.74779 121 103 93 
-0.810286 -0.329266 1.74688 123 104 89 
-0.807861 -0.328458 1.74547 179 145 135 
-0.807419 -0.328341 1.74518 33 24 7 
-0.808001 -0.328466 1.74542 118 96 83 
-0.804325 -0.327175 1.74315 116 84 69 
-0.804997 -0.327362 1.74347 40 23 3 
-0.805964 -0.327773 1.74415 27 18 1 
-0.804225 -0.327106 1.74298 108 85 69 
-0.806068 -0.327826 1.74419 153 127 112 
-0.80403 -0.326993 1.74279 151 119 104 
-0.802952 -0.326642 1.74215 120 89 69 
-0.802993 -0.326693 1.74222 111 83 71 
-0.801101 -0.326015 1.74104 117 85 70 
-0.806738 -0.328218 1.74412 143 153 100 
-0.801963 -0.326705 1.74136 158 171 127 
-0.799636 -0.32578 1.73986 158 171 128 
-0.801265 -0.326556 1.74098 95 109 56 
-0.801057 -0.326523 1.74089 73 97 39 
-0.81164 -0.331268 1.74786 123 138 71 
-0.802254 -0.327246 1.74181 74 88 35 
-0.803485 -0.327886 1.74269 99 115 52 
-0.831644 -0.340947 1.76145 117 118 60 
-0.805232 -0.329283 1.74424 74 70 35 
-0.838362 -0.335072 1.76352 183 174 159 
-0.82574 -0.331718 1.75605 177 169 156 
-0.849483 -0.338877 1.77062 179 171 158 
61641.9 18621.5 -38983.5 173 163 151 
-0.812438 -0.328043 1.74788 177 170 142 
-0.821152 -0.33067 1.75336 176 170 154 
-0.85628 -0.34099 1.77487 180 172 151 
-0.813222 -0.328353 1.74842 183 178 159 
-0.831174 -0.33375 1.75963 181 169 155 
-0.800181 -0.324367 1.74007 177 170 151 
-0.799531 -0.325996 1.73997 127 129 79 
-0.807976 -0.329778 1.74556 122 127 71 
-0.811541 -0.327838 1.74739 190 181 166 
-0.807237 -0.326497 1.74461 186 180 158 
-0.827844 -0.332176 1.75716 181 167 154 
-0.801572 -0.326182 1.74131 127 95 80 
-0.809776 -0.32727 1.74624 182 175 159 
-0.812209 -0.331818 1.74845 170 176 112 
44067 13281.8 -27590.7 177 167 157 
50449.4 14828.2 -30892.8 199 186 178 
-0.810053 -0.327085 1.74624 180 178 153 
39816.4 11786.5 -24757.7 180 172 159 
-0.811445 -0.327746 1.74725 189 185 158 
-0.814406 -0.330574 1.74948 159 133 116 
-0.813903 -0.330483 1.74924 142 117 112 
-0.812362 -0.329922 1.74823 130 102 90 
-0.811322 -0.329552 1.74756 152 123 107 
-0.811377 -0.329501 1.7474 198 162 148 
-0.810221 -0.329151 1.74674 120 102 82 
-0.807807 -0.328437 1.74543 179 145 135 
-0.805338 -0.3275 1.74367 175 141 129 
-0.838202 -0.330619 1.76115 160 150 141 
-0.84632 -0.332285 1.7659 170 157 148 
-0.849013 -0.338116 1.76998 177 175 162 
-0.812506 -0.327823 1.74781 169 162 134 
-0.847493 -0.338201 1.76999 180 172 151 
-0.806755 -0.326142 1.74418 176 169 151 
-0.842237 -0.336295 1.76592 146 143 128 
-0.841421 -0.336589 1.76581 173 163 151 
-0.863383 -0.342857 1.77906 160 154 140 
41166.7 12194 -25597.4 181 173 162 
-0.812912 -0.328197 1.7482 177 170 142 
-0.827157 -0.332435 1.75705 170 160 148 
-0.847336 -0.338309 1.76938 190 182 171 
-0.851305 -0.33945 1.77179 171 163 150 
27290 7993.19 -16758.2 172 165 155 
20914.3 6092.51 -12779.9 173 165 152 
-0.809842 -0.327298 1.74628 182 175 159 
32018.3 9440.78 -19739.7 159 155 144 
-0.827275 -0.332507 1.75706 187 179 166 
-0.873901 -0.346277 1.78577 184 176 153 
31519.2 9364.65 -19487.1 155 149 135 
-0.803806 -0.325473 1.74242 179 175 150 
-0.800655 -0.324536 1.74042 177 170 151 
-0.833833 -0.337908 1.76355 127 110 56 
-0.824747 -0.334715 1.75726 121 108 66 
-0.812792 -0.330161 1.74862 44 27 9 
-0.813211 -0.330155 1.74863 36 23 7 
-0.810334 -0.329246 1.74697 130 108 95 
-0.811302 -0.329516 1.74744 148 125 107 
-0.809851 -0.329148 1.74672 150 116 91 
-0.811141 -0.329485 1.74728 118 100 88 
-0.811651 -0.332993 1.749 166 156 147 
-0.808519 -0.328586 1.7457 133 107 94 
-0.83279 -0.342826 1.76292 104 115 59 
-0.804133 -0.326969 1.74289 49 32 12 
-0.838092 -0.345601 1.76694 67 75 36 
-0.818732 -0.33577 1.75332 164 169 111 
-0.806483 -0.327943 1.74451 31 23 2 
-0.810429 -0.331811 1.74778 149 148 94 
-0.807243 -0.330252 1.74559 158 167 102 
-0.804603 -0.327303 1.74335 117 88 72 
-0.803962 -0.328647 1.7434 92 78 49 
-0.8041 -0.327057 1.74294 122 90 79 
-0.806164 -0.327868 1.74431 56 38 16 
-0.814028 -0.333281 1.75007 178 191 109 
-0.811149 -0.331796 1.74801 177 194 114 
-0.80528 -0.327474 1.74365 36 25 5 
-0.805435 -0.327585 1.74382 148 125 111 
-0.805133 -0.327471 1.74359 168 136 123 
-0.80202 -0.326312 1.7416 127 99 78 
-0.800451 -0.326636 1.7407 157 177 105 
-0.826477 -0.338462 1.75786 116 119 62 
-0.80189 -0.326271 1.74148 124 90 80 
-0.845675 -0.347012 1.77045 98 106 57 
-0.802138 -0.326416 1.74168 41 23 11 
-0.809122 -0.32868 1.74545 31 27 15 
-0.803679 -0.327989 1.74284 82 91 44 
-0.827944 -0.338628 1.75854 161 168 98 
-0.809605 -0.329047 1.74575 130 116 107 
-0.805783 -0.328558 1.74381 105 111 63 
-0.804258 -0.328122 1.74314 145 161 86 
-0.801276 -0.326767 1.74114 127 135 76 
-0.812229 -0.33156 1.74828 121 129 72 
-0.806598 -0.328161 1.74402 174 188 127 
-0.801726 -0.326604 1.74122 96 100 65 
-0.80224 -0.326835 1.74155 172 195 139 
-0.799791 -0.325852 1.73995 180 187 136 
49453.7 14994.5 -31155.2 179 171 160 
-0.801269 -0.324704 1.74079 183 177 163 
-0.80958 -0.326931 1.74592 180 178 153 
-0.801649 -0.324669 1.74093 192 180 168 
-0.804589 -0.325717 1.74293 196 189 170 
-0.802745 -0.325153 1.74173 195 188 169 
-0.806642 -0.327943 1.7445 80 62 52 
-0.801028 -0.325777 1.74073 44 27 11 
-0.819124 -0.336063 1.75361 102 116 54 
-0.801223 -0.326583 1.74098 192 206 155 
-0.802181 -0.32686 1.74156 196 209 155 
-0.801574 -0.326527 1.7411 91 97 63 
-0.815759 -0.331112 1.75041 183 156 137 
-0.813089 -0.330159 1.74866 149 123 108 
-0.811483 -0.329575 1.74761 139 110 92 
-0.812021 -0.329682 1.74781 36 23 7 
-0.811062 -0.329506 1.74742 136 108 94 
-0.812228 -0.329848 1.74799 195 168 159 
-0.809497 -0.32901 1.74647 150 116 91 
-0.810555 -0.329247 1.74688 118 100 88 
-0.807814 -0.328452 1.74543 188 154 144 
-0.80868 -0.328782 1.74599 117 93 83 
-0.807943 -0.328431 1.74538 138 110 89 
-0.806216 -0.327888 1.74435 40 23 3 
-0.803983 -0.327036 1.74285 133 103 93 
-0.80855 -0.328536 1.74505 61 56 37 
-0.801946 -0.326694 1.74134 172 195 139 
-0.800195 -0.326 1.74023 70 75 45 
-0.799718 -0.325749 1.73985 188 206 158 
-0.800079 -0.325993 1.74017 180 191 151 
-0.802901 -0.327584 1.74229 71 80 37 
-0.801231 -0.326738 1.74104 78 79 45 
-0.800452 -0.326632 1.7407 174 191 120 
-0.809096 -0.330778 1.74658 103 112 65 
-0.813929 -0.333177 1.74999 174 180 108 
-0.804555 -0.328911 1.7438 38 57 12 
-0.802122 -0.327556 1.74188 160 165 101 
-0.802657 -0.327927 1.74232 185 169 154 
-0.811357 -0.332303 1.74847 160 161 101 
-0.820604 -0.336729 1.75467 155 160 102 
38511.2 11406.4 -23936.6 183 175 164 
-0.840676 -0.331155 1.76263 186 176 167 
-0.812722 -0.330642 1.74944 106 89 46 
-0.842624 -0.33698 1.7665 185 173 159 
-0.80921 -0.32889 1.74549 120 106 97 
-0.804104 -0.328797 1.74347 189 180 171 
-0.806549 -0.32968 1.74498 79 76 41 
-0.815666 -0.333118 1.75058 126 126 74 
-0.804 -0.327912 1.74287 182 192 132 
-0.799909 -0.326029 1.7401 196 209 155 
-0.810483 -0.33236 1.74812 166 156 147 
-0.838868 -0.345994 1.76749 67 75 36 
-0.817444 -0.334586 1.75215 148 155 88 
-0.82786 -0.339143 1.75882 106 105 61 
-0.802519 -0.326494 1.74195 34 16 2 
-0.802205 -0.324859 1.74133 192 180 168 
-0.828871 -0.339088 1.75925 111 118 67 
-0.799543 -0.325995 1.73997 125 127 80 
-0.846288 -0.332176 1.76577 176 167 160 
-0.819221 -0.334972 1.75325 105 111 63 
-0.803391 -0.327689 1.74251 146 164 88 
-0.813204 -0.332049 1.74898 116 118 68 
-0.827513 -0.328566 1.75525 172 162 153 
-0.831232 -0.333773 1.75967 181 169 155 
14477.2 4264.18 -8876.32 178 170 151 
24358.2 7245.02 -15063.1 173 163 151 
-0.866271 -0.343915 1.78091 176 170 158 
-0.812625 -0.328149 1.74801 173 168 148 
-0.814603 -0.328377 1.74902 197 189 178 
-0.850176 -0.338466 1.77071 177 175 162 
-0.809346 -0.326901 1.74582 182 174 163 
-0.804889 -0.325453 1.74275 178 173 151 
-0.80637 -0.32578 1.74349 167 160 132 
-0.809917 -0.327091 1.74616 174 169 149 
-0.816811 -0.329369 1.7506 196 186 177 
-0.812605 -0.328148 1.74805 186 179 161 
8682.38 2516.3 -5273.81 138 129 112 
13526.2 3963.48 -8305.46 159 149 139 
-0.823937 -0.334414 1.75669 135 122 77 
-0.823654 -0.334627 1.75681 134 131 78 
63455.3 19238.3 -40248.9 160 154 140 
-0.84514 -0.33765 1.76797 158 150 137 
-0.837861 -0.335493 1.7635 167 160 144 
-0.810123 -0.327345 1.74641 191 183 170 
-0.827464 -0.332526 1.75726 170 160 148 
-0.801544 -0.324792 1.74099 183 177 163 
-0.852431 -0.339777 1.77238 209 200 191 
-0.804847 -0.325802 1.74311 193 185 164 
-0.809639 -0.327256 1.74618 192 179 171 
-0.819468 -0.330131 1.75224 176 170 154 
-0.833347 -0.337772 1.76322 136 121 66 
-0.816594 -0.331741 1.75175 139 136 83 
-0.816051 -0.331242 1.75062 198 176 163 
-0.813235 -0.330224 1.74876 111 89 68 
-0.811787 -0.329704 1.74783 152 125 114 
-0.813101 -0.330183 1.74863 30 25 5 
-0.813052 -0.330164 1.74855 203 167 151 
-0.813583 -0.330353 1.74887 126 104 91 
-0.81153 -0.329721 1.74774 126 103 87 
-0.809373 -0.32897 1.74638 145 113 88 
-0.809401 -0.32893 1.74631 142 117 95 
-0.810947 -0.329407 1.74715 118 100 88 
-0.806533 -0.327907 1.74451 184 147 118 
-0.808057 -0.328517 1.74553 100 78 65 
-0.803802 -0.326952 1.74272 133 103 93 
-0.804622 -0.327281 1.74324 39 23 7 
-0.809098 -0.328769 1.74542 74 72 57 
-0.807647 -0.328574 1.74471 58 49 32 
-0.805804 -0.32782 1.74348 188 200 134 
-0.802034 -0.326792 1.74145 196 209 155 
-0.80069 -0.326292 1.74063 180 189 142 
-0.800914 -0.326423 1.74074 191 205 152 
-0.801553 -0.326915 1.74135 102 105 52 
-0.803851 -0.328114 1.74308 172 180 120 
-0.803172 -0.327736 1.74247 91 102 59 
-0.858183 -0.35291 1.77893 103 101 60 
-0.808752 -0.330517 1.74632 168 170 97 
-0.814238 -0.333336 1.75021 174 180 108 
-0.8065 -0.32984 1.74502 179 193 118 
-0.805622 -0.329516 1.74453 56 45 23 
-0.809503 -0.331329 1.74709 142 140 92 
-0.842311 -0.347648 1.76964 103 111 64 
-0.83974 -0.346272 1.7677 189 207 123 
-0.806438 -0.327904 1.74441 30 22 20 
-0.808872 -0.330218 1.74638 121 129 72 
-0.828229 -0.332762 1.75776 170 160 148 
-0.811261 -0.331283 1.74774 98 109 43 
-0.819816 -0.330253 1.75284 204 197 187 
-0.858117 -0.341384 1.77584 198 198 190 
-0.82983 -0.333169 1.75859 171 163 150 
-0.715312 -0.298352 1.68595 172 169 150 
-0.81486 -0.32889 1.74953 173 168 148 
-0.847519 -0.337696 1.76904 177 175 162 
-0.838288 -0.335125 1.76347 203 193 183 
-0.816146 -0.328841 1.75001 168 159 144 
-0.853816 -0.353218 1.77755 158 179 100 
-0.804586 -0.329056 1.74383 188 181 165 
47284.4 22381.6 -32130.8 111 128 60 
-0.80629 -0.329472 1.74473 142 148 86 
-0.80616 -0.32945 1.74468 97 106 53 
-0.822485 -0.336668 1.75517 152 152 92 
-0.808836 -0.330532 1.74632 107 108 66 
-0.820122 -0.332885 1.75399 121 108 66 
-0.798595 -0.324858 1.73913 60 38 17 
-0.813833 -0.331108 1.75025 105 88 45 
-0.813372 -0.332126 1.74909 121 129 72 
-0.804133 -0.328839 1.74346 146 139 121 
-0.811418 -0.329802 1.74692 63 54 15 
-0.831349 -0.340975 1.76135 162 165 96 
-0.801529 -0.326161 1.74128 114 85 69 
-0.816592 -0.329279 1.75046 191 182 167 
9175.98 2657.98 -5573.78 138 129 112 
-0.802893 -0.327666 1.74233 132 130 92 
-0.815106 -0.328782 1.74978 178 171 161 
-0.798645 -0.323811 1.73897 177 171 149 
-0.807239 -0.328211 1.74492 61 47 38 
-0.841706 -0.347684 1.76925 192 203 111 
-0.843963 -0.348413 1.77064 194 212 126 
-0.804417 -0.328996 1.74365 162 153 138 
-0.820846 -0.33702 1.75487 104 114 64 
-0.816892 -0.33483 1.752 165 171 111 
-0.837131 -0.334803 1.76285 166 154 138 
-0.809256 -0.330885 1.74671 96 101 61 
-0.834779 -0.3342 1.76146 155 150 130 
53526.9 25385.8 -36381.4 123 138 71 
-0.806433 -0.329596 1.74489 82 84 44 
-0.80742 -0.32993 1.74541 160 174 97 
-0.809023 -0.330812 1.74666 101 108 57 
-0.81637 -0.334041 1.75138 163 173 100 
-0.809496 -0.330868 1.7468 106 107 63 
-0.80103 -0.326939 1.74114 186 204 130 
-0.824583 -0.337563 1.75655 106 105 61 
-0.802668 -0.327685 1.74224 175 185 116 
-0.802785 -0.327784 1.74236 108 118 68 
-0.804172 -0.328158 1.74327 203 222 166 
-0.831851 -0.333829 1.75991 177 173 161 
-0.800044 -0.326029 1.74015 94 114 55 
-0.80321 -0.327486 1.74235 188 209 150 
-0.803806 -0.327697 1.74273 196 213 159 
-0.838617 -0.335005 1.76256 166 158 147 
-0.860677 -0.342253 1.77737 176 170 158 
-0.804735 -0.327363 1.74341 129 102 83 
-0.806082 -0.3278 1.7442 192 164 152 
-0.804771 -0.327286 1.74336 101 76 45 
-0.805799 -0.327684 1.74406 170 134 100 
-0.808429 -0.328387 1.7454 75 59 44 
-0.822422 -0.334144 1.75515 32 30 17 
-0.811333 -0.329665 1.74759 129 103 86 
-0.813244 -0.330236 1.74865 122 104 94 
-0.812962 -0.330127 1.74849 168 131 112 
-0.813628 -0.330393 1.74899 33 24 7 
-0.813065 -0.330168 1.74866 150 123 112 
-0.808768 -0.329053 1.74663 105 86 46 
-0.813435 -0.330927 1.74995 105 88 45 
-0.8221 -0.334128 1.75586 117 100 56 
-0.818382 -0.332472 1.75303 139 136 83 
-0.821415 -0.333431 1.75491 115 102 60 
-0.819651 -0.33275 1.75391 102 86 37 
-0.825438 -0.334652 1.75763 127 110 56 
-0.824625 -0.334955 1.75757 45 30 7 
-0.821995 -0.333668 1.75534 127 119 72 
-0.821636 -0.333789 1.75534 137 134 79 
-0.815352 -0.330979 1.75014 198 176 163 
-0.813904 -0.330462 1.74919 28 25 8 
-0.812546 -0.329976 1.7483 150 123 112 
-0.81239 -0.330076 1.74832 127 105 91 
-0.808197 -0.328522 1.74555 130 103 82 
-0.806443 -0.328095 1.74465 128 98 88 
-0.806874 -0.328145 1.74476 189 158 137 
-0.802054 -0.326249 1.74153 124 92 77 
-0.807093 -0.327826 1.74409 21 22 6 
-0.81018 -0.329313 1.7461 67 57 32 
-0.804095 -0.327795 1.74289 112 133 76 
-0.801619 -0.326818 1.74132 86 88 49 
-0.800129 -0.326139 1.74027 197 216 161 
-0.801755 -0.326864 1.74135 201 222 163 
-0.804419 -0.328157 1.74322 119 122 75 
-0.806582 -0.329271 1.74483 147 164 93 
-0.803047 -0.327458 1.74217 188 202 141 
-0.808807 -0.330215 1.74622 202 222 151 
-0.812347 -0.332162 1.74876 72 67 47 
-0.828526 -0.340777 1.75975 94 95 55 
-0.819388 -0.336917 1.75433 169 183 95 
-0.811057 -0.331685 1.74801 187 198 119 
-0.836481 -0.344678 1.76553 103 111 64 
-0.831753 -0.342566 1.76255 188 204 116 
-0.840331 -0.34638 1.76804 168 188 103 
-0.80214 -0.327545 1.74197 192 209 131 
-0.819289 -0.33607 1.75372 154 159 101 
-0.805031 -0.329185 1.74407 58 53 33 
-0.820844 -0.335888 1.75405 156 158 93 
55668.8 26398.1 -37833.3 139 157 83 
-0.802923 -0.327967 1.74249 196 207 129 
-0.83303 -0.341598 1.7624 132 142 73 
-0.812922 -0.330677 1.74955 99 80 40 
-0.819547 -0.335245 1.75333 155 178 90 
-0.847985 -0.343526 1.77355 110 101 44 
-0.822993 -0.334131 1.75605 105 93 55 
-0.818512 -0.332492 1.75309 126 121 66 
-0.816304 -0.331376 1.75079 189 150 111 
-0.80967 -0.328802 1.74621 102 76 59 
-0.812108 -0.330038 1.74821 131 110 83 
-0.804441 -0.327134 1.74309 165 135 85 
-0.80768 -0.328586 1.74471 56 48 37 
-0.802209 -0.32681 1.74149 201 225 163 
-0.802816 -0.327213 1.74202 197 221 161 
-0.800891 -0.326456 1.74077 94 114 55 
-0.804391 -0.328269 1.74334 196 220 158 
-0.807001 -0.329329 1.74491 200 219 140 
-0.811381 -0.331481 1.74794 116 113 78 
-0.807307 -0.329662 1.74523 109 109 73 
-0.812783 -0.332148 1.74883 158 167 100 
-0.812834 -0.332417 1.74912 74 69 49 
-0.810312 -0.331335 1.74749 193 200 123 
-0.834736 -0.342638 1.76374 160 167 90 
-0.805651 -0.329411 1.74455 201 218 138 
-0.811677 -0.332139 1.74846 97 98 66 
-0.846328 -0.347677 1.77113 146 144 93 
-0.820954 -0.333705 1.75506 113 101 53 
-0.831507 -0.337693 1.76251 45 30 9 
-0.825697 -0.335418 1.7582 141 138 85 
-0.840721 -0.341438 1.76777 89 67 44 
-0.810069 -0.329054 1.74611 24 21 16 
-0.810163 -0.329658 1.7464 56 50 38 
-0.80878 -0.329155 1.74551 197 213 148 
-0.803095 -0.327377 1.74228 202 222 169 
-0.801606 -0.326737 1.74124 110 125 66 
-0.802909 -0.327407 1.74211 115 125 64 
-0.804461 -0.328429 1.74343 79 90 47 
-0.809954 -0.330795 1.74692 116 113 80 
-0.818076 -0.334891 1.7526 169 179 108 
-0.811681 -0.332057 1.74837 174 180 108 
-0.836393 -0.338954 1.76534 126 109 57 
-0.819265 -0.332644 1.7534 90 75 42 
-0.810282 -0.329503 1.74757 113 99 52 
-0.827651 -0.339412 1.75903 88 83 54 
-70.2696 -32.4683 53.9634 108 76 55 
-76.2836 -34.8153 57.8449 111 84 57 
-75.1912 -34.246 57.1567 117 94 63 
-75.3754 -33.7009 56.5368 82 59 41 
-75.3614 -33.627 56.6955 61 39 18 
-76.4596 -33.9749 57.1013 92 67 45 
-78.9252 -34.6672 58.4415 139 108 87 
-85.6868 -36.3279 62.1837 111 91 67 
-84.9589 -35.872 61.4043 86 68 48 
-85.9747 -36.0587 61.9013 95 77 57 
-86.8308 -36.2589 62.33 97 70 53 
-80.0722 -33.631 58.0854 116 90 75 
-87.2036 -36.2604 62.7232 40 27 10 
-86.394 -35.6462 61.9882 105 88 68 
-90.7298 -37.1482 64.2869 123 98 76 
-83.314 -34.3245 59.8513 109 91 69 
-89.4334 -36.5401 63.4654 151 129 108 
-66.2152 -35.5768 52.768 66 67 53 
-61.6702 -30.2987 49.4288 107 72 50 
-69.7172 -32.275 53.5344 75 47 33 
-73.6016 -32.551 55.1982 134 106 82 
-73.1344 -32.134 54.614 127 107 80 
-80.378 -35.0006 59.1676 125 93 72 
-91.8485 -38.6807 66.1002 98 77 56 
-82.6173 -34.1226 59.293 113 95 75 
-74.4577 -33.4052 56.0635 91 64 43 
-88.8607 -37.331 63.959 98 76 53 
-84.4289 -35.0648 60.6212 95 69 52 
-89.0748 -36.7216 63.7276 111 92 75 
-88.9219 -36.2475 63.2745 110 91 74 
-90.1519 -36.3977 63.7903 122 91 71 
-66.6654 -35.8245 53.0816 59 62 45 
-67.8945 -36.0434 53.6508 189 170 156 
-58.3556 -27.8208 46.2881 119 85 58 
-73.4329 -33.836 56.1292 102 70 49 
-76.1158 -33.7289 56.867 129 97 76 
-74.2516 -32.7531 55.4504 98 72 57 
-85.7873 -35.1983 61.3683 47 28 22 
-77.0592 -38.3601 58.3004 176 192 129 
-65.4145 -31.0569 51.2522 132 98 71 
-72.6319 -33.4233 55.5873 118 88 64 
-771.576 -248.806 529.257 166 167 161 
-83.8892 -35.6453 60.9648 83 57 40 
-77.4304 -38.3169 58.4515 99 100 68 
-81.8709 -39.6718 60.7974 89 112 60 
-81.97 -35.3819 60.1744 130 100 72 
-693.164 -222.125 472.528 171 136 134 
-69.1056 -36.3076 54.3632 182 198 136 
263.061 143.831 -197.627 135 115 90 
2484.23 745.011 -1569.19 169 163 149 
-1403.3 -467.169 973.112 175 171 146 
-1913.64 -631.659 1307.27 190 181 166 
215.721 103.72 -155.088 96 100 65 
2527.51 761.695 -1589.53 179 171 160 
-1717.8 -567.267 1181.81 192 179 171 
22087.8 6161.49 -16706.2 125 104 85 
261.119 142.038 -195.7 61 50 28 
2762.19 836.233 -1746.29 176 170 158 
-2260.67 -741.74 1532.06 173 168 148 
2.0054e+07 6.154e+06 -1.33381e+07 167 158 141 
2378.27 707.126 -1511.35 146 143 128 
2087.36 621.859 -1305.32 172 169 150 
236.292 119.605 -173.004 198 220 156 
2639.16 795.835 -1669.37 198 198 190 
2697.71 816.4 -1703.21 176 170 158 
2152.97 633.219 -1362.47 177 175 162 
262.216 142.571 -196.338 58 53 33 
265.593 147.875 -187.303 76 69 41 
257.472 139.384 -179.775 95 101 57 
261.82 144.327 -184.064 95 97 60 
257.709 137.331 -179.57 190 208 156 
2.80035e+07 7.94057e+06 -2.25207e+07 135 115 91 
1.70536e+07 4.84066e+06 -1.36794e+07 207 193 180 
-3979.25 -1275.72 2652.17 158 147 141 
262.425 141.295 -197.58 56 52 27 
2.63766e+07 7.48607e+06 -2.11996e+07 136 115 94 
3.0572e+07 8.69073e+06 -2.45074e+07 207 194 178 
210.842 102.027 -153.32 90 96 62 
263.606 142.718 -198.743 71 59 43 
-1183.82 -404.339 833.086 185 172 166 
212.501 102.749 -154.507 116 123 79 
240.761 123.15 -178.141 98 109 67 
244.017 124.962 -180.565 82 94 54 
263.581 142.62 -198.695 71 59 43 
267.971 146.365 -202.29 179 170 155 
2.24246e+07 6.36026e+06 -1.80272e+07 135 115 91 
2592 786.009 -1637.21 186 179 171 
2694.05 818.119 -1703.42 167 154 148 
-2570.27 -834.807 1735 183 179 170 
2732.63 831.023 -1727.83 181 166 161 
262.617 141.627 -197.624 56 52 27 
267.458 145.787 -201.739 184 173 143 
2465.23 746.763 -1548.37 179 172 162 
215.709 105.258 -157.353 203 228 170 
254.146 134.512 -190.312 111 109 70 
213.442 103.113 -155.05 116 123 79 
217.372 106.064 -158.591 202 226 166 
232.703 116.639 -171.139 199 224 159 
217.033 106.012 -158.343 202 226 166 
-48955.1 -14254.6 38040.4 41 30 26 
223.809 110.118 -163.322 201 223 159 
280.442 158.625 -214.052 224 214 204 
-55.9083 -16.8879 37.38 164 152 138 
-40.6838 -13.8025 29.4399 175 171 146 
-49.432 -15.4261 33.4058 171 163 150 
-41.7168 -13.7477 29.5389 189 181 160 
-53.0202 -16.4006 36.0057 181 172 163 
1.06951 0.574388 0.421108 168 180 98 
1.41453 0.738321 0.184064 112 126 65 
2.36456 1.2104 -0.47244 155 178 90 
-10.6989 -4.31767 8.83644 45 30 9 
20775 6979.87 -13452.4 161 148 139 
8.9224e+06 3.02416e+06 -5.78936e+06 137 130 124 
2580.24 927.321 -1688.14 148 133 128 
80.7085 40.7607 -52.7201 159 123 101 
379.965 272.172 -271.966 140 94 60 
-9311.96 -3188.03 6123.44 183 174 165 
85.9633 43.3046 -56.2185 53 32 15 
41.9856 26.0015 -24.1484 65 64 44 
62.7893 44.4589 -39.3007 112 102 77 
-60.3893 -19.3093 41.9071 128 122 108 
-39.6306 -14.4503 30.1684 160 154 120 
1.14601 0.604247 0.363658 109 119 56 
-51.6973 -17.9755 38.2053 166 159 140 
4.0763 2.06819 -1.64119 75 92 38 
5.76027 2.97359 -2.74567 70 79 36 
-45.3078 -15.1226 32.2284 167 165 153 
7.06702 3.69665 -3.5683 69 66 31 
6.86025 3.57928 -3.43983 154 160 90 
63.0728 19.8006 -39.8305 155 153 140 
5.18269 2.64475 -2.36881 156 159 90 
5.41364 2.7694 -2.5211 93 93 59 
2.21728 1.1328 -0.381177 167 186 105 
-1.61924 -0.658957 2.31188 44 27 9 
-3.16058 -1.24483 3.40121 136 121 66 
-121.538 -40.1951 84.6215 207 198 191 
-4509.73 -1745.99 3369.14 86 63 57 
-4950.31 -1930.81 3673.21 88 83 77 
-4917.65 -1905.79 3637 132 118 115 
-3738.97 -1435.22 2891.13 130 119 101 
-3170.68 -1184.24 2493.55 81 72 65 
-3070.63 -1145.85 2421.21 75 54 51 
-3029.6 -1125.17 2373.74 227 217 207 
-2941.88 -1088.25 2311.68 104 85 81 
-3517.66 -1355.19 2848.76 62 43 36 
-2621.99 -946.891 2056.77 55 51 40 
-2558.6 -918.906 2012.71 69 46 38 
-4597.91 -1821.87 3563.67 217 204 195 
-4040.38 -1584.95 3215.65 223 214 207 
-3752.05 -1462.59 3031.66 78 55 41 
-4315.27 -1704.2 3393.55 137 127 115 
-4001.78 -1572.19 3192.99 88 70 58 
-4847.82 -1929.39 3752.9 118 105 99 
-3948.67 -1549.95 3167.07 59 49 47 
-2229.72 -773.7 1781.28 90 76 63 
-4520.96 -1797.25 3546.23 114 99 80 
-4549.11 -1813.94 3583.87 236 230 218 
-4173.03 -1651.58 3355.32 81 58 50 
-4084.63 -1616.36 3301.11 57 57 57 
-5300.67 -2134.38 4107.41 112 102 92 
-4338.06 -1731.65 3479.84 217 201 188 
-5780.82 -2349.85 4473.57 80 65 58 
16504 5947.54 -10330.6 127 118 111 
15182.5 5469.31 -9457.1 238 217 212 
-4587.65 -1572.72 2987.71 171 156 149 
-2445.32 -819.013 1672.59 182 178 169 
-1777.53 -567.502 1228.95 173 167 153 
-3771.72 -1448.11 2915.66 130 119 101 
-4561.76 -1766.69 3407.71 67 46 45 
-4971.04 -1926.44 3676.5 132 118 115 
-3358.73 -1271.06 2623.55 155 141 128 
-2994.11 -1112.25 2403.76 159 145 136 
-3056.78 -1139.08 2409.18 91 66 62 
-3556.55 -1372.17 2879.08 57 47 37 
-3017.18 -1120.16 2364.18 227 217 207 
-2957.69 -1094.35 2323.99 104 85 81 
-3638.24 -1410.71 2942.37 203 194 177 
-3719.94 -1450.15 3005.7 78 55 41 
-4734.96 -1882.34 3664.95 134 120 117 
-2727.2 -990.195 2135.32 224 218 206 
-4387.03 -1741.47 3457.52 91 78 70 
-2567.21 -921.744 2018.62 69 46 38 
-2496.58 -890.535 1960.57 159 141 129 
-4109.45 -1625.91 3321.26 57 57 57 
-2228.21 -772.957 1780.15 90 76 63 
-4924.98 -1978.91 3870.7 230 231 217 
-4302.67 -1716.62 3452.26 217 201 188 
-5139.71 -2079.37 4044.29 53 34 28 
-5590.5 -2278.42 4372.97 33 32 30 
-7050.98 -2899.42 5449.79 246 229 219 
16207.3 5842.18 -10144.2 155 152 143 
408.302 98.2853 -272.019 37 33 22 
-4667.32 -1850.39 3626.59 156 144 132 
115.362 28.2593 -78.1058 132 105 94 
-6227.32 -2536.86 4822.5 58 54 55 
-6476.34 -2633.56 5000.7 236 238 225 
-4717.07 -1897.27 3697.74 67 58 49 
-2570.47 -923.203 2021.06 69 46 38 
-2620.8 -944.99 2055.45 72 66 54 
-2682.01 -975.057 2101.42 219 209 199 
-2235.56 -773.671 1793.04 177 156 137 
-3640.28 -1411.42 2944.72 203 194 177 
3.23026e+07 1.15453e+07 -2.02261e+07 238 226 212 
-4548.78 -1763.44 3397.46 68 48 47 
-4925.08 -1910.28 3643.66 132 118 115 
-3046.46 -1135.61 2400.9 81 59 62 
-2971.88 -1101.24 2335.54 77 58 54 
-2990.16 -1110.41 2401.03 139 125 114 
-3368.17 -1274.95 2629.23 168 156 142 
16787.7 6054.24 -10505.9 156 147 138 
106411 37939 -67118.6 153 146 138 
1.86626e+07 6.63571e+06 -1.17833e+07 177 173 164 
-4416.05 -1773.05 3537.83 114 100 87 
-4023.61 -1549.01 3078.32 235 225 213 
-3723.26 -1428.26 2879.06 130 119 101 
-2258.54 -783.051 1819.43 119 98 79 
-4553.23 -1809.85 3559.07 214 199 192 
-4745.68 -1832.26 3547.85 243 230 213 
-5045.39 -2030.69 3922.27 146 137 130 
113.047 27.6452 -76.5193 132 105 94 
-2265.25 -785.424 1809.48 67 58 43 
-2229.94 -771.313 1790.33 175 154 135 
-2533.2 -904.833 1987.96 121 101 90 
-2583.59 -930.28 2027.8 68 58 48 
-2766.5 -1006.32 2166.03 227 219 206 
-4954.85 -1924.12 3666.55 137 127 125 
-3536.27 -1363.35 2861.11 51 36 31 
-4030.24 -1583.65 3213.72 116 99 89 
-4636.99 -1844.37 3631.23 135 122 106 
-4036.69 -1593.23 3265.64 59 48 42 
-5382.15 -2166.86 4164.29 128 116 102 
-7947.16 -3296.49 6131.6 147 142 138 
-5539.54 -2250.2 4312.36 47 38 33 
-5105.9 -2074.18 4039.5 37 35 36 
-4838.32 -1923.16 3742.08 134 120 117 
-4491.72 -1781.4 3536.49 87 78 71 
-2228.03 -772.395 1794.49 135 117 97 
-2546.5 -841.405 1714.65 162 153 146 
-4165.58 -1429.3 2775.99 168 161 155 
-3432.26 -1299.19 2677.73 123 111 95 
-4754.4 -1883.65 3694.24 158 146 134 
-2534.22 -832.013 1709.29 191 181 171 
-3032.91 -1127.87 2384.59 75 66 59 
-5056.11 -1961.43 3742.49 127 114 108 
-4953.57 -1997.93 3911.43 236 224 210 
-5225.16 -2118.29 4102.73 44 36 33 
-5505.35 -2239.08 4311.52 42 30 32 
-2287.36 -792.946 1828.12 134 116 94 
-4983.11 -1982.72 3872.98 139 125 116 
-4044.58 -1598.73 3272.51 47 44 37 
-4620.61 -1853.34 3695.44 114 100 87 
-6006.08 -2445.23 4636.72 78 67 61 
-4449.39 -1766.57 3503.92 87 78 71 
-3414.83 -1292.13 2665.7 133 119 106 
-5624.76 -2294.77 4367.86 90 80 81 
-5205.69 -2099.74 4073.47 234 226 215 
-4192.53 -1660.73 3363.98 44 38 40 
-4773.23 -1911.36 3736.89 176 159 152 
-4595.72 -1781.56 3431.51 68 48 47 
-3078.58 -1144.54 2420.28 82 68 65 
-5208.84 -2024.54 3871.26 75 70 64 
-2646.05 -952.932 2078.84 72 63 58 
-3514.57 -1326.86 2736.15 191 179 165 
-5164.65 -2051.74 4023.55 157 140 130 
-6717.34 -2788.54 5208.17 49 40 41 
-5386.85 -2193.19 4221.66 39 35 32 
-4972.21 -1931.49 3688.5 138 123 118 
-3064.65 -1137.82 2408.85 76 67 60 
-2897.01 -1064.77 2269.68 224 214 204 
-2607.01 -938.174 2048.47 69 60 53 
-4299.76 -1713.27 3462.23 225 215 205 
-4774.18 -1906.62 3714.91 124 114 104 
-77.1536 -25.5815 54.3703 95 91 88 
-77.0556 -25.528 54.307 98 89 90 
-2.34212 2.50119 3.90961 47 32 3 
-75.2026 -25.0607 53.661 96 92 89 
-70.2077 -23.311 50.5625 94 78 88 
-70.6768 -23.4267 50.7589 158 136 138 
9.93208 2.57248 -5.96941 75 61 48 
-3.08276 -1.21986 3.35248 134 119 62 
13.3018 3.69868 -8.68352 69 68 50 
10.7246 2.845 -6.57918 219 213 201 
8.94322 2.2271 -5.18226 149 137 123 
-1.50199 -0.617423 2.23679 146 122 110 
9.9147 2.56591 -5.95586 75 61 48 
9.65788 2.47528 -5.74745 230 220 210 
7.47536 1.68816 -4.0299 227 207 198 
14.188 3.98366 -9.46149 127 110 92 
-3.07202 -1.21642 3.34441 128 111 59 
8.97225 2.23739 -5.20459 145 133 119 
13.2673 3.68287 -8.65691 60 53 37 
31.3614 9.89473 -19.8339 122 115 105 
-3.03713 -1.20509 3.321 133 120 65 
45.2881 14.4897 -28.9219 190 186 175 
13.4444 3.74434 -8.84272 121 99 85 
10.5665 2.78745 -6.45396 225 213 201 
13.424 3.73676 -8.82724 115 92 78 
14.1371 3.96318 -9.43003 121 104 88 
0.352633 0.251462 0.899161 125 123 84 
7.59922 1.73503 -4.12575 219 206 198 
11.0585 2.95228 -6.84906 75 62 56 
-5.91292 -1.82109 5.14064 64 43 24 
-4.30719 -1.28805 4.17173 110 93 77 
-4.33805 -1.29571 4.19233 102 84 64 
-4.56523 -1.37073 4.32994 114 91 73 
-6.14383 -1.90325 5.31529 175 143 130 
-6.00564 -1.84804 5.20259 49 31 19 
-4.98668 -1.49644 4.61625 121 102 87 
-4.36069 -1.31036 4.23384 109 88 67 
-6.19503 -1.9244 5.34546 173 136 120 
-4.97815 -1.51151 4.53977 86 71 50 
-4.82497 -1.45971 4.46693 41 29 17 
-5.97568 -1.84008 5.18372 61 40 23 
-5.87997 -1.78919 5.14589 173 136 120 
-5.82521 -1.77546 5.10781 159 128 107 
-7.32924 -2.33481 6.32621 94 77 34 
0.33703 0.159702 0.840142 103 108 68 
-9983.25 -6334.74 8655.74 241 159 31 
2387.29 1327.36 -1709.01 64 52 36 
-995.469 -700.074 602.034 145 123 109 
-101611 -54782 72251.8 169 170 112 
-133298 -70725.4 94644.1 104 105 65 
-243924 -124468 171600 126 143 89 
-133659 -70824.4 94838.8 104 111 67 
-243365 -124231 171194 126 143 89 
-147950 -78001.4 104530 138 149 91 
-245892 -125191 172424 151 154 109 
67386.1 48536.2 -53218 180 173 165 
-94119.9 -51180.3 67218.5 145 150 96 
-136592 -72490.6 96903 104 106 69 
-228052 -116835 160317 190 210 151 
-245708 -125186 172384 153 161 112 
-92647.8 -50366.1 66142.2 145 150 96 
-100304 -54183 71474.2 174 186 124 
-136731 -72591.2 96923 123 125 86 
172317 70492.2 -119899 193 180 163 
80544.2 51904.2 -54266.8 184 177 159 
107347 57964.4 -74616.3 98 66 45 
113215 58251.8 -77399.5 114 82 67 
110542 58283.3 -76201.1 115 82 63 
113475 58416.9 -77597 114 82 67 
107733 57428.2 -74793.7 105 70 50 
-0.334409 -0.208202 1.23314 180 163 153 
-7.41013 0.448729 4.6395 227 185 135 
-0.672202 -0.273329 1.65075 151 127 117 
0.0445358 0.107484 1.16197 94 98 47 
0.0941096 0.123019 1.12086 93 91 66 
7.627 5.0659 -3.44725 121 102 87 
3.06331 1.2323 -1.16409 142 159 88 
3.07424 1.23003 -1.17505 152 165 93 
7.97138 5.04108 -3.73043 154 140 111 
3.03402 1.21633 -1.13767 91 92 58 
7.72081 5.05255 -3.53319 179 176 161 
3.1203 1.23641 -1.21419 92 91 47 
-7945.32 -1400.95 3815.84 205 78 0 
